ply
    		format ascii 1.0
    		element vertex 20480
    		property float x
    		property float y
    		property float z
    		property uchar red
    		property uchar green
    		property uchar blue
    		end_header
-1531.213300 -763.200800 5.047000 135 135 135
-1537.884400 -770.304600 6.099200 235 235 235
-1544.329300 -777.455100 6.585800 160 160 160
-1550.956700 -784.545500 7.570300 210 210 210
-1557.352900 -791.693700 7.958000 156 156 156
-1563.595200 -798.887000 7.936400 219 219 219
-1569.977100 -806.031700 8.300500 169 169 169
-1576.421500 -813.147200 8.850200 149 149 149
-1582.600300 -820.359300 8.660200 131 131 131
-1588.740100 -827.590600 8.351000 122 122 122
-1594.814100 -834.855900 7.840000 253 253 253
-1600.849900 -842.147300 7.200000 143 143 143
-1606.877600 -849.452900 6.516800 210 210 210
-1612.784400 -856.831700 5.442500 235 235 235
-1618.762900 -864.190400 4.557400 224 224 224
-1624.802000 -871.529800 3.836100 253 253 253
-1630.937500 -878.824500 3.401700 215 215 215
-1636.995800 -886.175200 2.700500 180 180 180
-1643.115400 -893.498400 2.179000 245 245 245
-1649.263200 -900.811900 1.735800 166 166 166
-1655.744000 -907.896100 2.421000 236 236 236
-1662.247100 -914.950700 3.207600 189 189 189
-1668.610000 -922.099500 3.523600 243 243 243
-1675.033400 -929.192600 4.070400 195 195 195
-1681.605100 -936.148900 5.184000 234 234 234
-1688.859600 -942.475900 8.903300 232 232 232
-1694.209700 -950.491300 5.476800 130 130 130
-1699.974500 -958.178100 3.533900 116 116 116
-1745.046500 -926.216200 157.940600 122 122 122
-1758.772800 -923.878800 191.337900 251 251 251
-1725.593400 -972.350000 31.723700 59 59 59
-1796.434300 -905.196800 305.574500 189 189 189
-1806.513900 -904.316400 328.559300 116 116 116
-1811.447600 -909.308700 329.819100 123 123 123
-1816.539900 -914.062900 331.853300 140 140 140
-1782.191500 -972.367300 151.646200 152 152 152
-1770.768700 -1002.780200 71.409400 236 236 236
-1772.697400 -1015.535300 52.000300 125 125 125
-1771.968400 -1032.921400 18.426400 219 219 219
-1776.980500 -1041.966900 12.384900 238 238 238
-1783.896500 -1047.972000 15.980200 223 223 223
-1789.350200 -1056.449500 11.922100 239 239 239
-1794.707400 -1065.227200 7.106000 165 165 165
-1801.108900 -1072.139300 7.939600 148 148 148
-1807.223800 -1079.603600 7.149000 254 254 254
-1813.391400 -1086.982200 6.627300 179 179 179
-1819.510400 -1094.485700 5.773300 217 217 217
-1825.701700 -1101.851200 5.326300 165 165 165
-1831.913800 -1109.182300 4.987000 255 255 255
-1838.140700 -1116.486900 4.728100 165 165 165
-1844.419100 -1123.664600 4.811700 221 221 221
-1850.660300 -1130.943200 4.630800 205 205 205
-1856.901900 -1138.228500 4.437800 165 165 165
-1863.199800 -1145.344700 4.676300 218 218 218
-1869.481600 -1152.504900 4.799600 163 163 163
-1875.752200 -1159.697000 4.840500 186 186 186
-1882.122900 -1166.515100 5.782100 143 143 143
-1888.451500 -1173.451500 6.417100 167 167 167
-1894.786100 -1180.328900 7.173400 168 168 168
-1901.118300 -1187.174200 7.983200 180 180 180
-1907.427600 -1194.082200 8.629100 218 218 218
-1913.662000 -1201.332300 8.486600 181 181 181
-1920.074100 -1207.613300 10.505700 249 249 249
-1926.491900 -1213.715800 12.865500 160 160 160
-1932.566500 -1221.853800 10.747900 168 168 168
-1973.348400 -986.468100 530.810100 111 111 111
-1977.243800 -988.674400 535.001800 106 106 106
-1981.478500 -987.606400 545.944300 102 102 102
-1984.530000 -996.508100 536.013100 104 104 104
-1987.984100 -1002.325400 532.617100 106 106 106
-1991.571300 -1007.003600 531.601500 100 100 100
-1995.505200 -1007.060200 539.835200 142 142 142
-2004.248400 -928.235800 703.575900 193 193 193
-2007.880100 -914.832900 735.963900 171 171 171
-2010.591300 -915.469600 740.537400 166 166 166
-2013.255900 -916.080500 745.059100 254 254 254
-2015.834000 -918.548600 745.976800 137 137 137
-2018.152200 -941.747600 708.152600 163 163 163
-2020.753500 -1000.143500 606.088800 181 181 181
-2023.875100 -982.090900 645.960900 223 223 223
-2026.960100 -987.066400 643.333400 175 175 175
-2030.008100 -989.450500 645.401400 113 113 113
-2033.057000 -992.472600 646.296200 242 242 242
-2036.060100 -994.590700 648.759100 115 115 115
-2039.321800 -1002.400900 641.284100 220 220 220
-2042.506100 -1007.656300 638.351100 154 154 154
-2045.619400 -1011.415800 638.023700 233 233 233
-2048.718000 -1014.934800 638.108500 96 96 96
-2051.716600 -1017.227100 640.240700 252 252 252
-2054.757600 -1020.214000 641.183000 146 146 146
-2057.772200 -1023.014500 642.413300 128 128 128
-2060.782700 -1025.882200 643.511200 140 140 140
-2063.807100 -1028.961100 644.249200 137 137 137
-2066.860100 -1032.337300 644.500000 253 253 253
-2069.912600 -1035.727200 644.724500 154 154 154
-2072.943600 -1038.969400 645.175900 164 164 164
-2075.906000 -1041.736200 646.356800 248 248 248
-2078.957500 -1045.194800 646.453200 106 106 106
-2081.955800 -1048.302200 647.083000 222 222 222
-2084.986100 -1051.648300 647.341500 195 195 195
-2087.952100 -1054.611300 648.169300 253 253 253
-2090.895800 -1057.481100 649.121500 99 99 99
-2093.733600 -1059.786700 650.888300 231 231 231
-2096.728500 -1063.042700 651.237800 213 213 213
-2099.746600 -1066.438200 651.379500 138 138 138
-1131.312500 -340.653400 -93.467300 119 119 119
-1113.190300 -340.000100 -131.498500 119 119 119
-1172.747800 -365.408100 -50.314600 73 73 73
-1228.352800 -388.864200 25.981500 109 109 109
-1270.377700 -407.360500 82.196800 181 181 181
-1266.378900 -411.018700 66.645000 151 151 151
-1236.590000 -406.926500 9.813700 128 128 128
-1240.318500 -413.332300 5.828900 151 151 151
-1246.905200 -420.606600 6.400200 89 89 89
-1252.873900 -427.700000 5.973900 218 218 218
-1258.685500 -434.753300 5.282300 136 136 136
-1264.349600 -441.772800 4.334900 132 132 132
-1270.478100 -448.923000 4.147900 221 221 221
-1276.494800 -456.046100 3.768800 102 102 102
-1282.927200 -463.276100 4.089900 140 140 140
-1289.493200 -470.535300 4.645100 114 114 114
-1296.143300 -477.809000 5.355200 180 180 180
-1302.479900 -485.005600 5.531400 123 123 123
-1308.914800 -492.221900 5.883000 239 239 239
-1314.862400 -499.333200 5.377300 150 150 150
-1320.412800 -506.369700 4.151500 220 220 220
-1326.577300 -513.535800 4.012400 133 133 133
-1332.779800 -520.710100 3.940000 239 239 239
-1339.009500 -527.889800 3.916000 110 110 110
-1345.576700 -535.125400 4.518200 168 168 168
-1351.847700 -542.309100 4.576400 169 169 169
-1358.251000 -549.511400 4.886700 168 168 168
-1364.237800 -556.653500 4.407100 137 137 137
-1370.189700 -563.796100 3.851900 117 117 117
-1376.470000 -570.982800 3.924100 159 159 159
-1382.597200 -578.152600 3.697300 123 123 123
-1388.969400 -585.348400 3.951900 115 115 115
-1395.341100 -592.541700 4.210600 186 186 186
-1401.347700 -599.704100 3.735800 99 99 99
-1407.403700 -606.875100 3.352600 235 235 235
-1413.782500 -614.067600 3.627400 141 141 141
-1419.830600 -621.243000 3.218300 236 236 236
-1426.236600 -628.434000 3.555300 217 217 217
-1432.401100 -635.616800 3.385200 241 241 241
-1438.519800 -642.801000 3.112100 122 122 122
-1444.624900 -649.988500 2.803800 119 119 119
-1450.741500 -657.179400 2.513900 136 136 136
-1457.129600 -664.365200 2.822000 143 143 143
-1463.636100 -671.542200 3.403200 248 248 248
-1469.511100 -678.748600 2.560500 177 177 177
-1475.864400 -685.931200 2.799500 175 175 175
-1482.459200 -693.089900 3.606300 152 152 152
-1488.764300 -700.267700 3.749300 180 180 180
-1494.969600 -707.455200 3.658400 210 210 210
-1501.391200 -714.615500 4.086900 201 201 201
-1507.614000 -721.799500 4.039900 155 155 155
-1513.931800 -728.968600 4.227100 193 193 193
-1519.830300 -736.210100 3.370000 224 224 224
-1526.060900 -743.398200 3.332000 205 205 205
-1532.694300 -750.501500 4.327100 208 208 208
-1539.271000 -757.604100 5.200200 154 154 154
-1545.625400 -764.749600 5.510800 213 213 213
-1552.091100 -771.861100 6.126900 194 194 194
-1558.683100 -778.927800 7.101200 224 224 224
-1565.123800 -786.026500 7.687300 144 144 144
-1571.393100 -793.172300 7.812900 233 233 233
-1577.627900 -800.328200 7.845100 186 186 186
-1583.785600 -807.511800 7.658400 222 222 222
-1590.121200 -814.629300 7.980900 236 236 236
-1596.160200 -821.863600 7.441500 143 143 143
-1602.285000 -829.069000 7.142300 170 170 170
-1608.338400 -836.312100 6.617300 255 255 255
-1614.315100 -843.601000 5.839700 217 217 217
-1620.113300 -850.993000 4.480900 230 230 230
-1626.085000 -858.315200 3.630300 236 236 236
-1632.236300 -865.551200 3.331000 248 248 248
-1638.321800 -872.831100 2.805900 229 229 229
-1644.548600 -880.032800 2.734700 172 172 172
-1650.705400 -887.281100 2.424100 230 230 230
-1656.954700 -894.472400 2.420500 236 236 236
-1663.213500 -901.657000 2.451300 151 151 151
-1669.604900 -908.742400 2.954900 236 236 236
-1675.916600 -915.879900 3.188800 142 142 142
-1682.582500 -922.725000 4.740100 149 149 149
-1689.085400 -929.677700 5.735900 109 109 109
-1695.190300 -936.963700 5.241500 171 171 171
-1702.285000 -943.341300 8.602000 184 184 184
-1709.308700 -949.716900 11.813000 92 92 92
-1716.626800 -955.725600 16.352400 191 191 191
-1772.793800 -909.994000 224.154400 132 132 132
-1778.837600 -914.926500 227.959900 79 79 79
-1799.361100 -903.085300 294.721800 86 86 86
-1807.354200 -904.757000 308.890700 179 179 179
-1812.534700 -909.622800 310.951100 109 109 109
-1817.714600 -914.438800 313.103900 137 137 137
-1777.279900 -981.684900 98.871400 135 135 135
-1767.712300 -1010.268400 24.318000 162 162 162
-1770.422900 -1022.462000 7.228300 161 161 161
-1777.333400 -1028.556400 10.723500 176 176 176
-1783.480100 -1035.801000 10.397500 245 245 245
-1789.041100 -1044.054800 6.903000 171 171 171
-1795.444100 -1050.907100 7.870800 143 143 143
-1801.758300 -1057.896400 8.388800 206 206 206
-1807.992600 -1065.025800 8.470100 183 183 183
-1813.902200 -1072.818000 6.599400 145 145 145
-1819.941300 -1080.393900 5.416200 222 222 222
-1826.142500 -1087.644500 5.197300 166 166 166
-1832.278400 -1095.056300 4.533800 152 152 152
-1838.465700 -1102.365400 4.174500 237 237 237
-1844.670700 -1109.641400 3.916000 192 192 192
-1850.860100 -1116.970000 3.524300 162 162 162
-1857.117600 -1124.117800 3.620900 176 176 176
-1863.409700 -1131.154800 4.001200 199 199 199
-1869.704100 -1138.168000 4.431200 174 174 174
-1876.016400 -1145.100600 5.051700 137 137 137
-1882.285500 -1152.159800 5.341000 204 204 204
-1888.676500 -1158.736200 6.802600 183 183 183
-1894.968900 -1165.640100 7.433700 243 243 243
-1901.236200 -1172.617800 7.872100 180 180 180
-1907.457000 -1179.787700 7.847600 189 189 189
-1913.790600 -1186.395400 9.126500 238 238 238
-1919.984700 -1193.669100 8.848900 141 141 141
-1926.269300 -1200.438700 9.715600 194 194 194
-1932.680500 -1206.347500 12.478600 224 224 224
-1939.727800 -1207.686600 25.224600 147 147 147
-1974.201900 -1002.588900 486.133900 103 103 103
-1980.260100 -988.751500 525.316100 106 106 106
-1984.155500 -990.696800 530.091900 108 108 108
-1987.003400 -1002.842200 513.390600 106 106 106
-1990.901700 -1004.903300 517.955000 112 112 112
-1994.455900 -1010.903500 514.355900 69 69 69
-1998.600800 -1008.267600 528.299600 214 214 214
-2007.067300 -921.773700 709.519500 201 201 201
-2010.411000 -910.665500 737.681500 253 253 253
-2013.017200 -913.242700 738.475000 143 143 143
-2015.649200 -914.320300 742.147800 212 212 212
-2018.264200 -913.871200 748.658400 161 161 161
-2020.653800 -960.634800 665.774800 155 155 155
-2023.719000 -983.276600 629.778300 215 215 215
-2026.716600 -978.126200 645.971400 141 141 141
-2029.734500 -980.339100 648.342500 247 247 247
-2032.830000 -985.603100 645.135700 121 121 121
-2035.790900 -986.888200 649.130900 207 207 207
-2038.904900 -991.995100 646.260300 250 250 250
-2041.864100 -993.975000 648.942800 108 108 108
-2045.369500 -1004.593100 636.542300 238 238 238
-2048.320100 -1006.189400 639.928600 185 185 185
-2051.504200 -1011.016400 637.737400 211 211 211
-2054.488500 -1013.388200 639.736100 160 160 160
-2057.464400 -1015.855000 641.538100 251 251 251
-2060.446800 -1018.537700 642.947900 205 205 205
-2063.426000 -1021.298500 644.202800 226 226 226
-2066.485100 -1024.827300 644.185600 253 253 253
-2069.526600 -1028.214700 644.396400 118 118 118
-2072.569300 -1031.621800 644.571800 254 254 254
-2075.566400 -1034.714600 645.241200 172 172 172
-2078.555700 -1037.789800 645.926200 148 148 148
-2081.576200 -1041.107300 646.222800 196 196 196
-2084.550300 -1044.147500 646.941000 143 143 143
-2087.550500 -1047.382400 647.349400 148 148 148
-2090.487100 -1050.262900 648.287200 253 253 253
-2093.513200 -1053.691700 648.386200 108 108 108
-2096.255100 -1055.568100 650.793500 119 119 119
-2099.300500 -1059.156400 650.634400 169 169 169
-2102.443800 -1063.242100 649.749800 219 219 219
-1088.594700 -317.910200 -174.741000 92 92 92
-1067.943400 -316.465600 -217.707200 200 200 200
-1112.931600 -337.695300 -158.925300 237 237 237
-1232.847900 -383.466000 18.585900 101 101 101
-1276.653700 -402.866200 78.270900 95 95 95
-1265.915500 -404.270000 51.780400 183 183 183
-1246.821800 -403.266600 11.415000 113 113 113
-1250.473400 -409.597300 7.314700 201 201 201
-1256.043500 -416.539400 6.286700 231 231 231
-1262.015000 -423.608300 5.904300 138 138 138
-1267.754900 -430.614000 5.129900 133 133 133
-1273.497200 -437.627000 4.347000 190 190 190
-1279.473300 -444.710500 3.946100 146 146 146
-1285.252400 -451.745500 3.202600 237 237 237
-1291.694300 -458.957500 3.586100 168 168 168
-1298.235200 -466.190700 4.148200 134 134 134
-1304.811800 -473.427600 4.782100 124 124 124
-1310.859600 -480.535100 4.494400 117 117 117
-1317.313600 -487.736900 4.924600 135 135 135
-1323.401400 -494.855000 4.704400 123 123 123
-1329.283700 -501.932200 4.108100 95 95 95
-1335.266400 -509.035100 3.684400 249 249 249
-1340.950200 -516.084600 2.701800 151 151 151
-1347.137000 -523.235800 2.637300 188 188 188
-1353.610000 -530.437400 3.110000 197 197 197
-1359.775400 -537.583600 3.007700 231 231 231
-1365.955600 -544.733100 2.931800 135 135 135
-1372.246800 -551.899700 3.069200 174 174 174
-1378.329200 -559.036400 2.801600 146 146 146
-1384.681000 -566.209800 3.060000 181 181 181
-1391.125600 -573.391400 3.508300 230 230 230
-1397.408900 -580.551300 3.640900 227 227 227
-1403.564700 -587.697600 3.517300 250 250 250
-1409.820600 -594.853600 3.596800 112 112 112
-1415.598600 -601.973500 2.687100 161 161 161
-1421.757900 -609.127100 2.557200 181 181 181
-1428.114300 -616.292300 2.841100 137 137 137
-1434.439900 -623.453100 3.066100 217 217 217
-1440.803700 -630.612500 3.377800 186 186 186
-1446.798500 -637.762600 2.890300 215 215 215
-1452.817100 -644.918400 2.444900 250 250 250
-1458.947900 -652.078100 2.239700 185 185 185
-1465.365800 -659.233800 2.678600 226 226 226
-1471.807700 -666.383500 3.182200 151 151 151
-1477.976700 -673.540600 3.066900 150 150 150
-1484.264300 -680.691800 3.225700 218 218 218
-1490.704100 -687.829200 3.748900 216 216 216
-1496.891700 -694.983300 3.680500 142 142 142
-1503.231800 -702.122000 3.979900 126 126 126
-1509.516800 -709.263600 4.151300 172 172 172
-1515.747100 -716.410700 4.191400 224 224 224
-1521.856600 -723.575600 3.929300 251 251 251
-1527.841900 -730.765100 3.345200 209 209 209
-1534.190700 -737.894600 3.681300 209 209 209
-1540.537000 -745.019800 4.020300 231 231 231
-1546.812700 -752.156200 4.181500 176 176 176
-1553.188700 -759.266400 4.615200 204 204 204
-1559.415900 -766.409000 4.656600 248 248 248
-1566.105100 -773.422700 5.970000 137 137 137
-1572.646900 -780.461300 6.908600 224 224 224
-1578.743500 -787.627800 6.615500 129 129 129
-1584.953400 -794.760100 6.638000 218 218 218
-1591.043800 -801.935400 6.314300 206 206 206
-1597.217500 -809.083600 6.226600 129 129 129
-1603.497400 -816.190100 6.454300 223 223 223
-1609.595000 -823.371200 6.135100 164 164 164
-1615.739100 -830.536200 5.949200 230 230 230
-1621.637600 -837.821800 4.987500 132 132 132
-1627.484300 -845.148700 3.831200 156 156 156
-1633.482400 -852.415000 3.127700 142 142 142
-1639.668500 -859.588400 3.018500 185 185 185
-1645.862800 -866.758900 2.934100 239 239 239
-1652.027100 -873.949600 2.743700 187 187 187
-1658.228300 -881.119400 2.675200 162 162 162
-1664.418800 -888.298000 2.566400 255 255 255
-1670.626100 -895.466600 2.514100 254 254 254
-1676.837200 -902.633500 2.473200 194 194 194
-1683.158800 -909.715100 2.841300 190 190 190
-1689.664900 -916.639500 3.921200 251 251 251
-1696.154200 -923.557300 4.976400 224 224 224
-1702.329700 -930.732400 4.841100 216 216 216
-1709.010600 -937.440900 6.723300 174 174 174
-1719.032200 -940.864700 22.331200 104 104 104
-1723.090900 -950.006900 13.718700 107 107 107
-1763.287600 -921.001100 158.613900 148 148 148
-1791.738300 -901.773700 258.661300 140 140 140
-1801.401700 -902.017900 279.597600 170 170 170
-1809.581700 -903.568000 294.733200 133 133 133
-1814.167500 -909.301200 293.852600 220 220 220
-1812.486600 -923.336800 263.103600 93 93 93
-1766.690300 -999.072600 15.826200 181 181 181
-1771.111200 -1008.660600 7.158100 203 203 203
-1777.018400 -1016.233500 5.662400 243 243 243
-1783.554100 -1022.854700 7.391000 142 142 142
-1789.742300 -1030.001600 7.338600 189 189 189
-1796.027000 -1036.983600 7.816300 237 237 237
-1802.323500 -1043.929700 8.390000 211 211 211
-1808.705800 -1050.696000 9.499900 171 171 171
-1814.570600 -1058.456700 7.548400 232 232 232
-1820.537400 -1066.067000 6.112200 235 235 235
-1826.559800 -1073.602400 4.944400 239 239 239
-1832.794400 -1080.690900 5.106800 170 170 170
-1838.826300 -1088.263200 3.888400 221 221 221
-1844.919700 -1095.723800 3.021400 155 155 155
-1851.128400 -1102.908400 2.941000 145 145 145
-1857.326200 -1110.127600 2.770100 254 254 254
-1863.605700 -1117.110200 3.235800 205 205 205
-1869.859300 -1124.154900 3.524300 173 173 173
-1876.170800 -1130.994000 4.337200 246 246 246
-1882.487900 -1137.776600 5.271100 160 160 160
-1888.772800 -1144.632900 5.991900 223 223 223
-1895.058600 -1151.449300 6.791600 198 198 198
-1901.369500 -1158.116900 7.933200 197 197 197
-1907.606100 -1165.057000 8.385900 239 239 239
-1913.794200 -1172.206400 8.328000 245 245 245
-1919.938400 -1179.591100 7.719500 175 175 175
-1926.137100 -1186.706100 7.751400 241 241 241
-1932.501500 -1192.806200 10.104400 217 217 217
-1938.727100 -1199.648900 10.719700 174 174 174
-1945.761400 -1200.543600 24.579500 105 105 105
-1974.869400 -1022.962200 430.991600 100 100 100
-1981.857100 -1001.958500 486.913300 111 111 111
-1986.380500 -999.373300 501.911300 117 117 117
-1990.417800 -1000.429300 508.821700 113 113 113
-1993.948100 -1007.098200 503.801400 118 118 118
-1997.795800 -1009.765700 507.188200 77 77 77
-2005.612100 -939.633000 659.543000 232 232 232
-2010.203600 -906.449400 733.609100 202 202 202
-2012.895000 -906.803200 738.889800 167 167 167
-2015.494500 -908.756000 740.888300 152 152 152
-2018.095200 -909.177300 745.838000 158 158 158
-2020.659200 -906.470900 756.729000 138 138 138
-2023.264500 -931.013500 715.244000 255 255 255
-2026.413100 -964.994600 656.788300 183 183 183
-2029.389000 -968.167400 657.271500 192 192 192
-2032.431800 -973.521000 653.703900 223 223 223
-2035.580800 -980.617700 647.014700 169 169 169
-2038.620000 -984.276200 646.703100 184 184 184
-2041.709800 -988.753000 644.927700 212 212 212
-2044.443000 -987.634300 653.136100 116 116 116
-2047.718800 -994.774800 646.644000 228 228 228
-2051.103000 -1002.524000 639.219800 113 113 113
-2054.337900 -1007.889800 636.054300 156 156 156
-2057.246600 -1009.638400 639.130600 155 155 155
-2060.261700 -1012.655600 640.000500 105 105 105
-2063.170700 -1014.792700 642.329200 144 144 144
-2066.081500 -1017.115600 644.305200 247 247 247
-2069.098900 -1020.406200 644.653000 216 216 216
-2072.176800 -1024.171800 644.220500 206 206 206
-2075.162400 -1027.256300 644.894700 250 250 250
-2078.157000 -1030.439800 645.398900 251 251 251
-2081.102800 -1033.332000 646.355700 116 116 116
-2084.103000 -1036.612900 646.684900 200 200 200
-2087.055400 -1039.622700 647.429900 166 166 166
-2090.069800 -1043.024400 647.557100 146 146 146
-2093.060100 -1046.296800 647.880200 99 99 99
-2096.026900 -1049.456800 648.367900 251 251 251
-2098.930700 -1052.304600 649.317200 252 252 252
-2101.806900 -1055.050400 650.401300 108 108 108
-2104.965300 -1059.233600 649.343300 222 222 222
-1073.665300 -304.347800 -214.570000 131 131 131
-1061.475200 -305.796400 -245.042400 121 121 121
-1090.962200 -322.030300 -210.203500 139 139 139
-1254.331100 -383.867500 38.170000 118 118 118
-1271.605300 -394.577600 56.217100 107 107 107
-1270.075800 -398.939800 44.160600 227 227 227
-1256.402100 -399.474900 12.125100 251 251 251
-1259.569900 -405.604500 7.230800 143 143 143
-1265.207600 -412.539400 6.346900 113 113 113
-1270.922400 -419.505200 5.576600 108 108 108
-1276.622200 -426.473000 4.768500 175 175 175
-1282.225200 -433.419800 3.782400 143 143 143
-1288.054900 -440.438800 3.168300 103 103 103
-1293.925500 -447.474100 2.614000 127 127 127
-1300.131000 -454.603700 2.633000 124 124 124
-1306.683100 -461.822800 3.261100 187 187 187
-1313.032200 -468.985400 3.540600 158 158 158
-1319.544200 -476.184900 4.116100 177 177 177
-1325.549000 -483.260100 3.787700 118 118 118
-1331.987300 -490.436800 4.242000 253 253 253
-1337.941800 -497.503400 3.815900 98 98 98
-1343.979500 -504.591600 3.536600 161 161 161
-1349.847500 -511.648200 2.934700 119 119 119
-1355.849100 -518.736200 2.573800 140 140 140
-1362.136700 -525.880100 2.750600 198 198 198
-1368.259300 -532.993500 2.613600 128 128 128
-1374.468000 -540.122400 2.641600 131 131 131
-1380.647900 -547.246700 2.613100 207 207 207
-1387.003900 -554.396700 2.932700 107 107 107
-1393.211400 -561.523600 2.962100 234 234 234
-1399.352200 -568.641600 2.856800 164 164 164
-1405.711900 -575.786100 3.196300 253 253 253
-1411.786400 -582.897200 2.955000 254 254 254
-1417.793800 -590.004300 2.569700 249 249 249
-1423.765000 -597.112600 2.099900 90 90 90
-1429.884800 -604.236500 1.935400 197 197 197
-1436.102900 -611.368200 1.979400 150 150 150
-1442.424400 -618.504500 2.248200 206 206 206
-1448.568200 -625.631300 2.132700 177 177 177
-1454.830700 -632.762200 2.278500 142 142 142
-1460.836300 -639.888300 1.851500 247 247 247
-1467.090600 -647.019200 1.978000 196 196 196
-1473.567300 -654.145800 2.617900 204 204 204
-1479.641600 -661.275500 2.339600 119 119 119
-1485.914800 -668.400600 2.520800 229 229 229
-1492.294400 -675.517800 2.958900 181 181 181
-1498.602800 -682.634400 3.236400 155 155 155
-1505.029500 -689.737900 3.808500 246 246 246
-1511.395100 -696.840500 4.243400 236 236 236
-1517.731100 -703.941000 4.615400 166 166 166
-1523.988600 -711.046800 4.799300 151 151 151
-1530.041100 -718.180000 4.464500 158 158 158
-1536.080900 -725.319700 4.088200 151 151 151
-1542.182600 -732.453100 3.864600 237 237 237
-1548.286400 -739.589300 3.640600 162 162 162
-1554.416900 -746.722600 3.482000 212 212 212
-1560.565700 -753.853800 3.369500 125 125 125
-1566.954700 -760.926500 3.916900 184 184 184
-1573.591800 -767.924300 5.172800 236 236 236
-1579.897300 -775.000700 5.523700 166 166 166
-1586.126600 -782.095300 5.665100 230 230 230
-1592.435200 -789.162000 6.041900 157 157 157
-1598.670000 -796.248800 6.211600 195 195 195
-1604.684400 -803.416100 5.723500 146 146 146
-1610.826500 -810.539700 5.610800 215 215 215
-1616.940800 -817.676800 5.408500 231 231 231
-1622.906600 -824.883600 4.732500 140 140 140
-1628.921500 -832.078000 4.191600 251 251 251
-1635.002600 -839.248200 3.849100 245 245 245
-1640.990000 -846.473100 3.186500 151 151 151
-1647.028900 -853.681000 2.673800 226 226 226
-1653.107700 -860.874000 2.280500 223 223 223
-1659.314800 -867.995900 2.318500 229 229 229
-1665.489500 -875.137600 2.244500 212 212 212
-1671.602300 -882.322600 1.943900 183 183 183
-1677.823100 -889.436800 2.028500 243 243 243
-1684.073500 -896.527600 2.225100 254 254 254
-1690.369600 -903.579000 2.603900 235 235 235
-1696.781000 -910.529700 3.442000 212 212 212
-1703.316400 -917.358500 4.800900 215 215 215
-1709.443600 -924.522900 4.573900 249 249 249
-1715.830200 -931.450900 5.400100 231 231 231
-1725.166500 -935.490100 18.599400 196 196 196
-1729.446000 -944.395200 10.758300 192 192 192
-1737.887000 -949.041300 20.733000 103 103 103
-1790.167100 -904.654000 226.605300 85 85 85
-1804.586200 -899.648600 269.133400 113 113 113
-1811.704700 -902.538400 279.570700 113 113 113
-1815.667700 -909.196400 275.437600 165 165 165
-1768.619300 -983.885100 21.743300 190 190 190
-1771.024400 -996.050200 3.234900 245 245 245
-1777.804200 -1002.315900 6.256100 245 245 245
-1784.172200 -1009.129800 7.265400 143 143 143
-1790.440900 -1016.075000 7.791000 226 226 226
-1796.648100 -1023.108400 8.002900 199 199 199
-1802.737300 -1030.341800 7.554300 250 250 250
-1809.004500 -1037.262600 8.124100 215 215 215
-1815.281900 -1044.146200 8.790500 220 220 220
-1821.136600 -1051.862200 6.860300 166 166 166
-1827.036000 -1059.545700 5.095000 210 210 210
-1833.108200 -1066.903400 4.362900 162 162 162
-1839.288100 -1074.034100 4.321200 253 253 253
-1845.317000 -1081.538300 3.202600 228 228 228
-1851.348800 -1089.076400 2.023600 248 248 248
-1857.516500 -1096.287600 1.796400 230 230 230
-1863.729500 -1103.376800 1.912100 232 232 232
-1869.996900 -1110.295300 2.486800 159 159 159
-1876.272100 -1117.164200 3.177100 129 129 129
-1882.569000 -1123.926400 4.127400 254 254 254
-1888.853300 -1130.690300 5.044800 224 224 224
-1895.144900 -1137.379500 6.126800 204 204 204
-1901.415300 -1144.101400 7.095300 207 207 207
-1907.664200 -1150.864500 7.934700 176 176 176
-1913.843300 -1157.909200 8.061500 170 170 170
-1920.012100 -1164.997900 8.078100 156 156 156
-1926.102800 -1172.517500 7.068900 212 212 212
-1932.288600 -1179.538900 7.256000 139 139 139
-1938.541000 -1186.116300 8.468900 221 221 221
-1944.660400 -1193.537400 7.719000 121 121 121
-1951.324000 -1196.772800 16.445100 97 97 97
-1976.330900 -1040.190400 381.482000 104 104 104
-1984.042000 -1012.335500 453.811200 113 113 113
-1989.397000 -1001.695000 486.900100 117 117 117
-1993.576000 -1001.381600 496.986400 117 117 117
-1996.894900 -1012.153400 483.291800 45 45 45
-2001.037800 -1010.948500 495.051800 149 149 149
-2010.009500 -901.890300 730.161000 196 196 196
-2012.683300 -903.001800 734.030500 182 182 182
-2015.333600 -903.488200 739.077600 252 252 252
-2017.921600 -904.762600 742.431300 181 181 181
-2020.477300 -905.848600 746.082900 210 210 210
-2022.981600 -903.751300 755.887300 170 170 170
-2025.431500 -904.486600 759.990100 182 182 182
-2028.178800 -919.431100 736.783300 156 156 156
-2031.399900 -942.101500 699.433700 199 199 199
-2035.090300 -967.627600 657.524000 147 147 147
-2038.473900 -979.333900 642.135800 218 218 218
-2041.509500 -982.737500 642.310700 228 228 228
-2044.427000 -984.406600 645.633900 118 118 118
-2047.330000 -986.280000 648.521700 207 207 207
-2050.569600 -992.496500 643.619100 210 210 210
-2054.220500 -1002.742200 631.713600 232 232 232
-2057.210400 -1005.261200 633.526700 187 187 187
-2060.184300 -1007.779500 635.305400 189 189 189
-2063.113000 -1010.031900 637.505200 101 101 101
-2066.004900 -1012.137000 639.911800 214 214 214
-2068.804200 -1013.678000 643.219300 118 118 118
-2071.809100 -1016.940900 643.601900 202 202 202
-2074.843300 -1020.431900 643.601100 249 249 249
-2077.825000 -1023.569900 644.176800 142 142 142
-2080.794700 -1026.662700 644.814800 193 193 193
-2083.742400 -1029.649700 645.611100 223 223 223
-2086.656500 -1032.476600 646.646800 117 117 117
-2089.601100 -1035.522200 647.319800 229 229 229
-2092.559800 -1038.676100 647.812200 241 241 241
-2095.581500 -1042.188500 647.741600 156 156 156
-2098.524400 -1045.288300 648.304700 252 252 252
-2101.477800 -1048.462200 648.745600 218 218 218
-2104.382100 -1051.413500 649.514100 115 115 115
-2107.475600 -1055.291300 648.885900 179 179 179
-1081.295500 -298.752800 -219.706500 131 131 131
-1071.236000 -300.798700 -247.149000 183 183 183
-1083.142500 -310.920000 -239.941900 213 213 213
-1223.418500 -366.125900 -25.993000 216 216 216
-1286.411600 -392.955700 65.976100 141 141 141
-1283.382900 -396.682900 51.444700 189 189 189
-1265.622100 -395.632000 12.389100 211 211 211
-1268.324600 -401.559900 6.709300 190 190 190
-1274.298700 -408.577100 6.419200 167 167 167
-1279.816400 -415.454300 5.352900 100 100 100
-1285.691700 -422.449400 4.877700 175 175 175
-1291.093000 -429.307300 3.580300 231 231 231
-1296.845200 -436.278200 2.869000 240 240 240
-1302.742100 -443.296000 2.398100 181 181 181
-1308.705400 -450.336200 2.036700 232 232 232
-1315.007700 -457.470200 2.271000 173 173 173
-1321.335700 -464.609200 2.556200 99 99 99
-1327.866800 -471.796600 3.213800 215 215 215
-1334.062000 -478.896200 3.269700 120 120 120
-1340.167400 -485.974200 3.161100 156 156 156
-1346.168100 -493.029300 2.856200 254 254 254
-1352.373000 -500.132000 2.928800 110 110 110
-1358.483300 -507.214000 2.823300 125 125 125
-1364.738200 -514.326200 2.992100 141 141 141
-1370.576500 -521.356500 2.360900 226 226 226
-1376.551900 -528.418000 1.983800 234 234 234
-1382.777200 -535.526600 2.092000 100 100 100
-1388.750100 -542.592600 1.700400 177 177 177
-1395.061500 -549.714800 1.980000 115 115 115
-1401.423700 -556.841900 2.368000 216 216 216
-1407.425500 -563.916300 2.026700 140 140 140
-1413.581700 -571.013300 1.997600 130 130 130
-1419.851000 -578.123700 2.203500 108 108 108
-1425.895400 -585.208500 1.939800 206 206 206
-1432.046100 -592.306000 1.896900 210 210 210
-1437.991600 -599.387300 1.411400 172 172 172
-1444.164100 -606.489500 1.409300 137 137 137
-1450.423600 -613.596800 1.598800 167 167 167
-1456.401400 -620.689100 1.165500 131 131 131
-1462.540500 -627.791600 1.086100 145 145 145
-1468.906400 -634.900000 1.520100 120 120 120
-1475.046900 -642.001300 1.445700 142 142 142
-1481.273100 -649.103300 1.569100 201 201 201
-1487.398900 -656.205500 1.458800 127 127 127
-1493.447000 -663.311400 1.161300 144 144 144
-1499.955700 -670.400100 1.965800 227 227 227
-1506.385700 -677.483900 2.598800 180 180 180
-1512.715300 -684.567500 2.998300 125 125 125
-1519.061400 -691.644800 3.449100 254 254 254
-1525.211300 -698.737100 3.415200 192 192 192
-1531.328200 -705.833700 3.295900 147 147 147
-1537.516200 -712.922100 3.357500 254 254 254
-1543.731900 -720.005400 3.494100 218 218 218
-1549.901400 -727.094900 3.510700 171 171 171
-1555.916400 -734.213300 3.111300 161 161 161
-1561.904800 -741.342300 2.628500 184 184 184
-1568.157500 -748.418600 2.864700 165 165 165
-1574.549200 -755.457900 3.498000 194 194 194
-1580.834200 -762.516400 3.845600 145 145 145
-1587.151600 -769.561000 4.295300 206 206 206
-1593.399900 -776.620100 4.556300 187 187 187
-1599.752800 -783.641400 5.135500 175 175 175
-1606.006600 -790.688500 5.433500 217 217 217
-1612.011500 -797.822900 4.977800 144 144 144
-1617.890700 -805.013500 4.118500 126 126 126
-1624.118000 -812.072600 4.330700 253 253 253
-1630.024800 -819.269500 3.522100 138 138 138
-1635.979100 -826.457000 2.842400 153 153 153
-1641.996100 -833.624900 2.348200 254 254 254
-1648.204700 -840.701300 2.481800 221 221 221
-1654.349200 -847.810300 2.401400 165 165 165
-1660.277000 -855.045700 1.564000 210 210 210
-1666.322800 -862.224200 1.114400 174 174 174
-1672.477400 -869.340900 1.042000 161 161 161
-1678.659100 -876.441100 1.065600 221 221 221
-1684.901100 -883.498400 1.315700 173 173 173
-1691.071800 -890.603500 1.303900 144 144 144
-1697.320200 -897.649000 1.592000 139 139 139
-1703.709400 -904.574500 2.448600 239 239 239
-1710.087500 -911.492800 3.294800 197 197 197
-1716.385000 -918.465900 3.842100 236 236 236
-1723.025800 -925.107800 5.853600 208 208 208
-1729.771700 -931.605200 8.400000 173 173 173
-1736.059700 -938.516200 9.051200 176 176 176
-1742.878100 -944.846100 12.103000 127 127 127
-1788.752000 -907.423500 193.854200 67 67 67
-1807.319800 -897.824000 256.241300 94 94 94
-1813.548500 -901.886500 262.494500 177 177 177
-1815.931300 -910.731800 250.195400 81 81 81
-1772.548800 -981.308800 7.413200 204 204 204
-1778.595900 -988.513600 6.914500 151 151 151
-1784.784100 -995.523100 7.135700 148 148 148
-1790.814200 -1002.770900 6.510700 240 240 240
-1797.041500 -1009.716800 6.950300 245 245 245
-1803.129600 -1016.886200 6.617900 223 223 223
-1809.290200 -1023.936400 6.693300 245 245 245
-1815.470700 -1030.947300 6.894100 230 230 230
-1821.516800 -1038.215100 6.265200 202 202 202
-1827.511800 -1045.606800 5.268700 189 189 189
-1833.390500 -1053.282700 3.430200 251 251 251
-1839.413000 -1060.693200 2.459300 181 181 181
-1845.552200 -1067.859300 2.251800 148 148 148
-1851.665600 -1075.097800 1.838200 154 154 154
-1857.725500 -1082.493400 0.984100 180 180 180
-1863.916300 -1089.555400 1.105600 212 212 212
-1870.156400 -1096.465900 1.646400 124 124 124
-1876.394200 -1103.360600 2.214600 212 212 212
-1882.685900 -1110.050700 3.319900 254 254 254
-1888.949200 -1116.791600 4.255800 219 219 219
-1895.215800 -1123.473300 5.320300 165 165 165
-1901.453900 -1130.217200 6.192200 197 197 197
-1907.644000 -1137.119100 6.634700 196 196 196
-1913.824600 -1144.040400 7.016600 113 113 113
-1919.957900 -1151.173500 6.861300 142 142 142
-1926.023100 -1158.680800 5.794700 250 250 250
-1932.053100 -1166.464600 4.089100 215 215 215
-1938.162600 -1173.872100 3.325800 143 143 143
-1944.389500 -1180.528400 4.349200 253 253 253
-1950.387500 -1188.837500 1.510600 151 151 151
-1957.387700 -1188.968100 17.475200 104 104 104
-1977.058100 -1067.964700 306.896800 111 111 111
-1987.312000 -1013.822600 439.763500 115 115 115
-1993.666900 -989.913200 502.672200 123 123 123
-1997.778900 -988.483300 515.086400 74 74 74
-2001.521500 -991.136200 518.417100 72 72 72
-2005.547000 -987.109700 535.862200 200 200 200
-2012.395500 -901.186600 724.873400 249 249 249
-2015.096300 -901.170000 731.167800 189 189 189
-2017.736300 -901.036500 737.556300 168 168 168
-2020.312900 -900.908000 743.788600 247 247 247
-2022.837400 -902.768200 745.892600 124 124 124
-2025.303800 -901.956300 753.246500 173 173 173
-2027.679900 -900.282100 762.127700 204 204 204
-2030.150000 -904.035000 760.292200 154 154 154
-2032.845000 -912.750200 748.978300 217 217 217
-2036.744900 -943.165300 696.732600 190 190 190
-2040.866600 -969.268900 653.689600 152 152 152
-2044.776000 -986.502200 628.027000 141 141 141
-2047.989700 -991.594500 625.216400 99 99 99
-2050.836400 -992.041600 630.914900 161 161 161
-2054.298600 -999.691800 623.525400 200 200 200
-2057.456300 -1003.663800 622.842600 91 91 91
-2060.409700 -1005.684400 625.617100 179 179 179
-2062.580600 -1001.127000 639.833000 208 208 208
-2065.632300 -1004.724000 639.659500 189 189 189
-2068.354500 -1005.775300 643.852100 158 158 158
-2071.401400 -1009.445900 643.518200 251 251 251
-2074.336700 -1012.325300 644.521400 251 251 251
-2077.397200 -1016.089100 644.032400 125 125 125
-2080.376500 -1019.310300 644.447700 204 204 204
-2083.319300 -1022.331800 645.182100 240 240 240
-2086.295900 -1025.584200 645.529200 151 151 151
-2089.189700 -1028.383800 646.596300 203 203 203
-2092.127900 -1031.470600 647.187700 253 253 253
-2095.075900 -1034.633500 647.647900 112 112 112
-2098.059300 -1037.997400 647.786700 215 215 215
-2101.023200 -1041.266500 648.069800 147 147 147
-2103.925500 -1044.250600 648.785300 188 188 188
-2106.883100 -1047.518200 649.057100 171 171 171
-2109.895300 -1051.045300 648.932600 215 215 215
-1068.521000 -285.436300 -257.270100 135 135 135
-1061.433700 -288.552900 -280.512900 222 222 222
-1086.528700 -303.657700 -252.122200 100 100 100
-1179.531200 -343.039900 -112.679800 228 228 228
-1305.576300 -393.047300 83.248600 98 98 98
-1300.836900 -396.009900 65.893900 142 142 142
-1273.909900 -391.534500 11.235400 110 110 110
-1276.418600 -397.349100 5.196400 115 115 115
-1282.709700 -404.452700 5.473000 165 165 165
-1288.505000 -411.394900 4.905900 137 137 137
-1293.987500 -418.243600 3.790400 124 124 124
-1300.012300 -425.267800 3.598400 120 120 120
-1305.688800 -432.189400 2.792700 101 101 101
-1311.853100 -439.260200 2.836000 200 200 200
-1317.867100 -446.287900 2.611500 149 149 149
-1324.020500 -453.356100 2.634600 183 183 183
-1330.176800 -460.425000 2.663000 110 110 110
-1336.457300 -467.526200 2.919800 229 229 229
-1342.252200 -474.501900 2.282900 83 83 83
-1348.348100 -481.557000 2.196500 181 181 181
-1354.348600 -488.590400 1.928700 88 88 88
-1360.341300 -495.624300 1.640600 215 215 215
-1366.517800 -502.701400 1.700200 163 163 163
-1372.683500 -509.775700 1.739800 139 139 139
-1378.598900 -516.798900 1.291000 148 148 148
-1384.410500 -523.806200 0.628500 139 139 139
-1390.720800 -530.911400 0.947300 137 137 137
-1396.934100 -537.996900 1.076900 167 167 167
-1402.930700 -545.045200 0.768800 106 106 106
-1409.519200 -552.188300 1.669900 112 112 112
-1415.569500 -559.244500 1.472700 91 91 91
-1421.762900 -566.322000 1.571800 228 228 228
-1427.759000 -573.374100 1.254500 255 255 255
-1433.938100 -580.450100 1.322400 102 102 102
-1439.952500 -587.508500 1.035800 204 204 204
-1446.127800 -594.584500 1.094500 205 205 205
-1452.386000 -601.666600 1.337700 180 180 180
-1458.480100 -608.734900 1.219800 112 112 112
-1464.578000 -615.804700 1.107600 231 231 231
-1470.802600 -622.881200 1.282400 158 158 158
-1476.845600 -629.950300 1.041800 177 177 177
-1483.098600 -637.025800 1.286000 221 221 221
-1489.109500 -644.097200 0.964100 206 206 206
-1495.281900 -651.171000 1.020600 147 147 147
-1501.395600 -658.245400 0.936400 221 221 221
-1507.616300 -665.317100 1.112100 175 175 175
-1513.874100 -672.384700 1.384100 223 223 223
-1520.184300 -679.445900 1.793900 244 244 244
-1526.466300 -686.504200 2.142200 235 235 235
-1532.737700 -693.559200 2.471900 146 146 146
-1538.788100 -700.635000 2.234900 139 139 139
-1545.080900 -707.682700 2.631300 246 246 246
-1551.360400 -714.727300 3.002000 118 118 118
-1557.512100 -721.787800 3.036900 233 233 233
-1563.407500 -728.893600 2.369900 178 178 178
-1569.579000 -735.953700 2.452500 155 155 155
-1575.808800 -743.000500 2.701400 220 220 220
-1581.867300 -750.083900 2.467500 175 175 175
-1588.079600 -757.131300 2.673000 187 187 187
-1594.441000 -764.135100 3.322400 200 200 200
-1600.653900 -771.173600 3.547800 232 232 232
-1606.889000 -778.201700 3.847400 255 255 255
-1613.083000 -785.239500 4.029700 229 229 229
-1619.224400 -792.293400 4.053500 150 150 150
-1625.189300 -799.415000 3.519000 231 231 231
-1631.180500 -806.533800 3.053100 188 188 188
-1637.265100 -813.619600 2.876500 245 245 245
-1643.217300 -820.768900 2.254700 219 219 219
-1649.326400 -827.851900 2.142200 182 182 182
-1655.252700 -835.030600 1.398100 224 224 224
-1661.363600 -842.121500 1.273700 207 207 207
-1667.455100 -849.225600 1.075700 254 254 254
-1673.450300 -856.391000 0.522900 148 148 148
-1679.466100 -863.553100 0.025600 251 251 251
-1685.649300 -870.612600 0.137400 160 160 160
-1691.843400 -877.662200 0.295400 161 161 161
-1698.159700 -884.619400 0.933300 235 235 235
-1704.395800 -891.626200 1.279300 209 209 209
-1710.572000 -898.674900 1.396700 225 225 225
-1717.151500 -905.379200 3.181100 225 225 225
-1723.508700 -912.245600 4.104200 118 118 118
-1730.088600 -918.885600 6.022200 184 184 184
-1736.890100 -925.268800 8.995500 183 183 183
-1743.345200 -931.944000 10.544600 236 236 236
-1749.623800 -938.774500 11.355000 151 151 151
-1797.710700 -898.600200 208.298900 78 78 78
-1806.229700 -900.525000 224.541800 76 76 76
-1813.079800 -904.129000 233.362100 96 96 96
-1816.860100 -911.488800 227.153300 133 133 133
-1780.150500 -973.802300 11.545700 159 159 159
-1785.445100 -981.955100 7.294500 227 227 227
-1791.215700 -989.509500 5.406300 184 184 184
-1797.336900 -996.567900 5.372900 142 142 142
-1803.415300 -1003.696800 5.092500 219 219 219
-1809.660500 -1010.547700 5.781800 137 137 137
-1815.829200 -1017.516400 6.046200 211 211 211
-1821.809400 -1024.833000 5.146400 126 126 126
-1827.904300 -1031.950400 4.928700 199 199 199
-1833.845800 -1039.394700 3.673500 184 184 184
-1839.772300 -1046.912600 2.231000 141 141 141
-1845.800900 -1054.243400 1.416000 187 187 187
-1851.972900 -1061.253100 1.604100 254 254 254
-1858.073500 -1068.439700 1.256800 196 196 196
-1864.204600 -1075.556000 1.128200 189 189 189
-1870.332600 -1082.686800 0.961500 134 134 134
-1876.547100 -1089.560200 1.531300 238 238 238
-1882.766100 -1096.394700 2.192200 215 215 215
-1888.963900 -1103.272100 2.714100 245 245 245
-1895.167500 -1110.105100 3.340600 183 183 183
-1901.393800 -1116.817300 4.271300 197 197 197
-1907.614100 -1123.506300 5.234900 170 170 170
-1913.897600 -1129.859400 7.041000 159 159 159
-1920.148200 -1136.265900 8.659500 246 246 246
-1926.222900 -1143.486200 8.181900 147 147 147
-1932.231700 -1151.108800 6.718400 236 236 236
-1938.239300 -1158.844100 5.019800 188 188 188
-1944.260500 -1166.618700 3.272600 246 246 246
-1950.136500 -1175.610800 -1.330400 119 119 119
-1955.727200 -1187.361200 -12.298800 109 109 109
-1965.332900 -1163.431900 59.841500 108 108 108
-1974.940600 -1131.367300 148.763800 111 111 111
-1987.738000 -1050.127100 346.669500 113 113 113
-1996.815900 -991.355700 489.412000 100 100 100
-2001.833600 -974.949500 535.152300 248 248 248
-2005.413600 -978.167700 537.009200 48 48 48
-2009.472900 -968.296500 566.997600 234 234 234
-2014.735500 -903.152000 713.831800 210 210 210
-2017.501600 -900.114500 726.659100 249 249 249
-2020.126100 -899.513600 734.125200 209 209 209
-2022.680300 -899.554600 740.101200 192 192 192
-2025.183600 -900.075600 744.965900 213 213 213
-2027.614300 -899.461700 751.998500 142 142 142
-2029.891700 -896.203500 764.122100 154 154 154
-2032.396100 -901.023600 760.123400 151 151 151
-2035.047500 -908.003800 752.018700 232 232 232
-2039.726900 -947.626400 681.407500 201 201 201
-2043.121100 -959.206600 665.578700 163 163 163
-2047.951900 -987.623200 618.437400 235 235 235
-2051.882300 -1000.601000 600.998400 205 205 205
-2054.755100 -1000.626800 607.761100 140 140 140
-2057.791500 -1002.843600 610.394100 178 178 178
-2061.498300 -1011.407500 601.527000 101 101 101
-2067.217800 -1036.569900 563.204800 167 167 167
-2068.388700 -1022.532000 594.933200 254 254 254
-2068.005900 -998.688700 643.197500 252 252 252
-2071.018800 -1002.172500 643.161100 115 115 115
-2073.805700 -1004.105700 645.786300 254 254 254
-2076.775100 -1007.373300 646.093100 120 120 120
-2079.883800 -1011.528900 644.898700 123 123 123
-2082.882100 -1014.962900 644.930500 161 161 161
-2085.782000 -1017.829800 645.899000 201 201 201
-2088.735800 -1021.037300 646.291900 183 183 183
-2091.644000 -1024.017200 647.046800 198 198 198
-2094.637000 -1027.468500 647.030100 123 123 123
-2097.589600 -1030.715700 647.339100 119 119 119
-2100.493200 -1033.733000 648.005600 253 253 253
-2103.504200 -1037.287100 647.820100 208 208 208
-2106.391100 -1040.257900 648.543000 184 184 184
-2109.453900 -1044.048800 647.991800 157 157 157
-2112.514200 -1047.811900 647.492400 162 162 162
-1060.988800 -273.797700 -287.125400 233 233 233
-1067.080100 -281.906200 -289.449400 204 204 204
-1090.441900 -296.529100 -263.574800 168 168 168
-1182.542100 -336.385900 -124.002900 118 118 118
-1325.935200 -393.826300 103.040800 205 205 205
-1323.010000 -397.243700 88.719800 157 157 157
-1278.600200 -386.223100 4.110200 187 187 187
-1284.514500 -393.182600 3.782200 171 171 171
-1290.921900 -400.311000 4.295300 132 132 132
-1296.926300 -407.302300 4.119300 140 140 140
-1302.639300 -414.200700 3.431600 183 183 183
-1308.163200 -421.044800 2.399400 222 222 222
-1314.233200 -428.066100 2.319000 120 120 120
-1320.588000 -435.174200 2.747900 109 109 109
-1326.629300 -442.186500 2.617200 135 135 135
-1332.707000 -449.210100 2.550900 105 105 105
-1338.809900 -456.241500 2.529600 254 254 254
-1344.774900 -463.235600 2.251700 154 154 154
-1350.588300 -470.192300 1.684900 158 158 158
-1356.286900 -477.124500 0.890700 133 133 133
-1362.369800 -484.158500 0.815000 233 233 233
-1368.300200 -491.157000 0.444500 107 107 107
-1374.488000 -498.217800 0.567400 241 241 241
-1380.353600 -505.206300 0.059800 222 222 222
-1386.138500 -512.182400 -0.617300 193 193 193
-1392.165000 -519.213800 -0.824100 238 238 238
-1398.453700 -526.297700 -0.505500 115 115 115
-1404.544200 -533.342300 -0.584700 203 203 203
-1411.002300 -540.451600 0.092200 203 203 203
-1417.395800 -547.543600 0.647900 237 237 237
-1423.622700 -554.604900 0.865100 120 120 120
-1429.547200 -561.620300 0.444400 254 254 254
-1435.619500 -568.659700 0.331500 143 143 143
-1441.950800 -575.731800 0.778700 179 179 179
-1448.276900 -582.799200 1.223700 155 155 155
-1454.417200 -589.843100 1.266800 145 145 145
-1460.549900 -596.885800 1.293800 163 163 163
-1466.521400 -603.915900 0.955800 209 209 209
-1472.656700 -610.960300 0.986000 216 216 216
-1478.810400 -618.005300 1.059200 136 136 136
-1484.879400 -625.046100 0.935400 143 143 143
-1490.693000 -632.081000 0.203600 193 193 193
-1496.857400 -639.129300 0.296100 206 206 206
-1503.066000 -646.176600 0.497800 211 211 211
-1509.365100 -653.220500 0.926900 168 168 168
-1515.638100 -660.260100 1.300900 216 216 216
-1521.727200 -667.302900 1.221800 201 201 201
-1527.735500 -674.351200 0.934900 169 169 169
-1533.997900 -681.384800 1.296000 171 171 171
-1540.030900 -688.434000 1.067700 253 253 253
-1546.278400 -695.464100 1.400400 185 185 185
-1552.463300 -702.497300 1.573700 186 186 186
-1558.633200 -709.530500 1.711800 177 177 177
-1564.535600 -716.602700 1.116900 226 226 226
-1570.653600 -723.645900 1.107400 243 243 243
-1576.754600 -730.692300 1.049600 187 187 187
-1582.922600 -737.725800 1.181500 208 208 208
-1588.983900 -744.781400 1.008100 140 140 140
-1595.169900 -751.809000 1.196500 147 147 147
-1601.308500 -758.846500 1.249000 216 216 216
-1607.609400 -765.836500 1.795900 233 233 233
-1613.632200 -772.904700 1.502400 125 125 125
-1619.900300 -779.896100 1.966400 243 243 243
-1625.907100 -786.972900 1.615900 156 156 156
-1632.225300 -793.937400 2.258900 234 234 234
-1638.299700 -800.990400 2.122700 248 248 248
-1644.430200 -808.021400 2.168600 165 165 165
-1650.264000 -815.186200 1.212200 211 211 211
-1656.392100 -822.224700 1.237100 141 141 141
-1662.352400 -829.348100 0.674700 253 253 253
-1668.257400 -836.510600 -0.104000 239 239 239
-1674.311200 -843.601600 -0.370900 181 181 181
-1680.474100 -850.632000 -0.244400 187 187 187
-1686.560200 -857.708700 -0.402400 226 226 226
-1692.749400 -864.719800 -0.171400 159 159 159
-1698.927000 -871.734700 0.023700 234 234 234
-1705.322000 -878.587100 1.089900 183 183 183
-1711.547000 -885.550200 1.508800 211 211 211
-1717.769800 -892.507200 1.936000 189 189 189
-1724.186300 -899.291600 3.197800 140 140 140
-1730.591600 -906.060500 4.465100 242 242 242
-1737.097800 -912.709800 6.230400 186 186 186
-1743.382700 -919.539300 7.077300 227 227 227
-1749.611100 -926.408700 7.702800 208 208 208
-1757.773900 -931.180800 17.455500 119 119 119
-1794.529300 -903.442900 165.307700 187 187 187
-1808.992600 -898.742200 210.366700 83 83 83
-1815.280500 -903.142300 216.350600 198 198 198
-1819.957600 -909.496300 214.296300 143 143 143
-1786.879200 -967.444100 11.589200 116 116 116
-1791.605100 -976.353400 4.257900 213 213 213
-1797.665000 -983.447600 3.999300 229 229 229
-1803.875000 -990.312500 4.589500 167 167 167
-1810.016800 -997.274000 4.810000 154 154 154
-1816.200200 -1004.157000 5.297600 216 216 216
-1822.163100 -1011.428600 4.428800 167 167 167
-1828.209600 -1018.565300 4.048300 213 213 213
-1834.203000 -1025.821400 3.286200 243 243 243
-1840.224200 -1033.042800 2.664900 246 246 246
-1846.208900 -1040.366800 1.738500 202 202 202
-1852.256000 -1047.574800 1.208600 195 195 195
-1858.331200 -1054.730800 0.856900 196 196 196
-1864.462500 -1061.752200 0.925800 228 228 228
-1870.529900 -1068.949300 0.468200 171 171 171
-1876.733200 -1075.763100 1.150000 160 160 160
-1882.860600 -1082.785800 1.206600 212 212 212
-1889.040200 -1089.632400 1.761300 239 239 239
-1895.166600 -1096.642500 1.842100 239 239 239
-1901.311900 -1103.577000 2.128600 249 249 249
-1907.512000 -1110.275800 3.045200 250 250 250
-1913.746300 -1116.774300 4.468500 254 254 254
-1920.123400 -1122.525600 7.816000 255 255 255
-1926.296800 -1129.102900 8.924600 220 220 220
-1932.310100 -1136.486300 7.942000 171 171 171
